-0.5335447192192078 -0.17973917722702026 0.4441690742969513
-0.49414724111557007 -0.2122858166694641 0.4615139961242676
-0.5217342972755432 -0.25911712646484375 0.5127250552177429
-0.5450883507728577 -0.31993329524993896 0.5679070353507996
-0.5224339365959167 -0.1569053828716278 0.46042191982269287
-0.5037468075752258 -0.2731921672821045 0.5135375261306763
-0.469208687543869 -0.15231184661388397 0.5275633931159973
-0.45714902877807617 -0.11311908066272736 0.47718942165374756
-0.4544409215450287 -0.2724049985408783 0.4682078957557678
-0.5425488948822021 -0.16600468754768372 0.5190072655677795
-0.5563316941261292 -0.24303781986236572 0.43926918506622314
-0.5131655931472778 -0.25012874603271484 0.5208336710929871
-0.5445987582206726 -0.4791994094848633 0.5108448266983032
-0.4555889964103699 -0.15200665593147278 0.481706440448761
-0.4881574511528015 -0.18591681122779846 0.5508648753166199
-0.4996482729911804 -0.11767224967479706 0.4760594666004181
-0.5363299250602722 -0.3707031309604645 0.5315499901771545
-0.4466526210308075 -0.2936423122882843 0.5269913077354431
-0.5471628308296204 -0.2778666019439697 0.49183133244514465
-0.5077317953109741 -0.41687142848968506 0.5171417593955994
-0.4753471612930298 -0.22176823019981384 0.5332992076873779
-0.5041468739509583 -0.12763921916484833 0.51019686460495
-0.4471011161804199 -0.32020312547683716 0.527559757232666
-0.5393529534339905 -0.4625605344772339 0.558718204498291
-0.5159153938293457 -0.47882428765296936 0.5165590047836304
-0.440172016620636 -0.16402006149291992 0.566225528717041
-0.43992212414741516 -0.3004530668258667 0.4647712707519531
-0.5570714473724365 -0.38027793169021606 0.5184038281440735
-0.44318464398384094 -0.49797022342681885 0.543363094329834
-0.4629043936729431 -0.19797927141189575 0.4504915475845337
-0.5586851835250854 -0.1780582070350647 0.5196505188941956
-0.5160419344902039 -0.3483390808105469 0.437666118144989
-0.4320683479309082 -0.13458429276943207 0.564467191696167
-0.45568957924842834 -0.2990083694458008 0.5470908880233765
-0.5391438603401184 -0.20603442192077637 0.4652169942855835
-0.5130010843276978 -0.11933481693267822 0.4904994070529938
-0.44549769163131714 -0.23776911199092865 0.4728296399116516
-0.5307942032814026 -0.49724504351615906 0.5103161334991455
-0.4529244601726532 -0.400909960269928 0.49781107902526855
-0.43335288763046265 -0.32750073075294495 0.5596534609794617
-0.45453768968582153 -0.2834447920322418 0.5188363790512085
-0.5570250153541565 -0.27394813299179077 0.5356125235557556
-0.5348330736160278 -0.47630512714385986 0.4372294843196869
-0.5442670583724976 -0.39523088932037354 0.5417358875274658
-0.5040268898010254 -0.265624076128006 0.4754362106323242
-0.5256131291389465 -0.2578217089176178 0.5337076187133789
-0.5415231585502625 -0.30954235792160034 0.5200111269950867
-0.43655839562416077 -0.3814617693424225 0.4861781597137451
-0.4891875386238098 -0.43695586919784546 0.5156337022781372
-0.4346240162849426 -0.37971365451812744 0.49799132347106934
-0.5500145554542542 -0.27323973178863525 0.5641151666641235
-0.49281376600265503 -0.4057919383049011 0.47512057423591614
-0.48149701952934265 -0.1257137954235077 0.494335800409317
-0.499851256608963 -0.14646025002002716 0.4474501609802246
-0.4377500116825104 -0.29643523693084717 0.47793424129486084
-0.4610081613063812 -0.38708972930908203 0.4529910087585449
-0.5310952067375183 -0.20600995421409607 0.4468272030353546
-0.5050780773162842 -0.3961917459964752 0.5067580938339233
-0.5472346544265747 -0.16186252236366272 0.5576961040496826
-0.5228481888771057 -0.3444348871707916 0.5138159394264221
-0.4663582742214203 -0.47335124015808105 0.5241444110870361
-0.45619988441467285 -0.15378691256046295 0.49233773350715637
-0.4550521671772003 -0.26061099767684937 0.45841678977012634
-0.5273761749267578 -0.24073883891105652 0.507673442363739
-0.45782673358917236 -0.18757259845733643 0.461963415145874
-0.5123400092124939 -0.1600746512413025 0.4949661195278168
-0.5355517268180847 -0.09086459875106812 0.49374833703041077
-0.5242800712585449 -0.27620014548301697 0.4737955331802368
-0.5294438600540161 -0.2107970416545868 0.5403664708137512
-0.5107986330986023 -0.4286680221557617 0.49734675884246826
-0.5117724537849426 -0.30908021330833435 0.4655747711658478
-0.4622131586074829 -0.4106985926628113 0.4384745955467224
-0.471570760011673 -0.1755569875240326 0.46542438864707947
-0.5425041913986206 -0.2460506558418274 0.5571193695068359
-0.531652569770813 -0.2636891305446625 0.46887457370758057
-0.4659772217273712 -0.2954205870628357 0.48430514335632324
-0.4774927496910095 -0.26742541790008545 0.4603593349456787
-0.5098046660423279 -0.08242174983024597 0.541161298751831
-0.49689000844955444 -0.21126210689544678 0.45244354009628296
-0.5102112293243408 -0.1092652976512909 0.45860469341278076
-0.43361881375312805 -0.12959270179271698 0.5256729125976562
-0.5155401229858398 -0.45863890647888184 0.4729559123516083
-0.4660649299621582 -0.31521251797676086 0.5413970947265625
-0.5367953181266785 -0.14019697904586792 0.5491037964820862
-0.4685966968536377 -0.4099210798740387 0.4632874131202698
-0.5571985840797424 -0.47638577222824097 0.5328027009963989
-0.49966317415237427 -0.167283296585083 0.47134822607040405
-0.5193591117858887 -0.10931438207626343 0.567590594291687
-0.5521535277366638 -0.15956199169158936 0.5081681609153748
-0.5652446746826172 -0.2303742617368698 0.47096872329711914
-0.5186458230018616 -0.07685719430446625 0.5332886576652527
-0.5585146546363831 -0.20233449339866638 0.4350200891494751
-0.4465107321739197 -0.2390211969614029 0.5182245969772339
-0.5636420845985413 -0.46224766969680786 0.5041285753250122
-0.5144478678703308 -0.14256925880908966 0.4715133309364319
-0.5120330452919006 -0.44648683071136475 0.5009931325912476
-0.43724149465560913 -0.3829880356788635 0.5397736430168152
-0.54377681016922 -0.11314466595649719 0.5023078322410583
-0.5489143133163452 -0.15806283056735992 0.5528039932250977
-0.546321451663971 -0.4476109445095062 0.46712520718574524
-0.49650755524635315 -0.08519986271858215 0.5491694808006287
-0.5221388936042786 -0.482496976852417 0.5134957432746887
-0.4884522557258606 -0.3935897946357727 0.5145533084869385
-0.43366286158561707 -0.4358724355697632 0.4756653308868408
-0.45166337490081787 -0.4294363260269165 0.4506116211414337
-0.5426905751228333 -0.16372038424015045 0.45043134689331055
-0.5535852313041687 -0.2258448600769043 0.5365413427352905
-0.4639977216720581 -0.31021547317504883 0.5567113161087036
-0.5455384254455566 -0.30655142664909363 0.4830029606819153
-0.49230068922042847 -0.41460058093070984 0.45308342576026917
-0.43342530727386475 -0.36722004413604736 0.500566303730011
-0.4424605071544647 -0.3669912815093994 0.4826405644416809
-0.4900153875350952 -0.46909093856811523 0.43641820549964905
-0.4806416928768158 -0.3372959792613983 0.44397661089897156
-0.5272548794746399 -0.1969025731086731 0.5355684757232666
-0.497793972492218 -0.402631014585495 0.5463274717330933
-0.5378866195678711 -0.16928346455097198 0.4539050757884979
-0.4399576485157013 -0.1621216982603073 0.5007734298706055
-0.5073860883712769 -0.2493390142917633 0.5223042368888855
-0.49072545766830444 -0.1958751082420349 0.4450782239437103
-0.5096757411956787 -0.17077773809432983 0.49230414628982544
-0.4351348280906677 -0.2663089334964752 0.47514691948890686
-0.445717453956604 -0.31495219469070435 0.5068264603614807
-0.47948139905929565 -0.12615567445755005 0.4614757001399994
-0.44817978143692017 -0.24901001155376434 0.48262014985084534
-0.5207087397575378 -0.07141603529453278 0.5608161091804504
-0.49237915873527527 -0.34796449542045593 0.5644251704216003
-0.5636566281318665 -0.477419912815094 0.4988027811050415
-0.4868053197860718 -0.49586373567581177 0.45852044224739075
-0.5542478561401367 -0.3899928033351898 0.4578985273838043
-0.5491195917129517 -0.4423694610595703 0.48328647017478943
-0.5485198497772217 -0.1620994508266449 0.487513929605484
-0.5501241087913513 -0.21522849798202515 0.5394170880317688
-0.517421543598175 -0.4960435628890991 0.5208300352096558
-0.4643150568008423 -0.11167000234127045 0.529312252998352
-0.48547831177711487 -0.3493939936161041 0.4661078155040741
-0.5571204423904419 -0.14213047921657562 0.5087277889251709
-0.5270854234695435 -0.44446253776550293 0.4721044600009918
-0.4638041853904724 -0.4047956168651581 0.4402867555618286
-0.5146750807762146 -0.35256001353263855 0.5271424055099487
-0.4909788966178894 -0.29297709465026855 0.564720869064331
-0.4521767199039459 -0.44293826818466187 0.4667220115661621
-0.5093802213668823 -0.46758460998535156 0.5353712439537048
-0.46240487694740295 -0.37144240736961365 0.5551969408988953
-0.49145251512527466 -0.40139082074165344 0.5169684290885925
-0.475280225276947 -0.18641698360443115 0.5640837550163269
-0.4428139925003052 -0.3188444972038269 0.49142521619796753
-0.5626988410949707 -0.3170067071914673 0.45712709426879883
-0.549673855304718 -0.14363543689250946 0.4362075924873352
-0.5484766960144043 -0.20956411957740784 0.5096544623374939
-0.5080785751342773 -0.1472320258617401 0.46533912420272827
-0.5380312204360962 -0.27514490485191345 0.4476332664489746
-0.4730569124221802 -0.09177103638648987 0.5425469279289246
-0.4471821188926697 -0.4669632911682129 0.49037593603134155
-0.4442554712295532 -0.1325293332338333 0.513237714767456
-0.47772470116615295 -0.3829381465911865 0.46898961067199707
-0.5568730235099792 -0.10616907477378845 0.47218891978263855
-0.43219393491744995 -0.49574196338653564 0.5408903360366821
-0.4950459897518158 -0.4804247319698334 0.5225837826728821
-0.4712550640106201 -0.19422167539596558 0.5269930958747864
-0.4745265543460846 -0.16464222967624664 0.48445990681648254
-0.4368791878223419 -0.28858843445777893 0.469338059425354
-0.4321472644805908 -0.3770585060119629 0.49262675642967224
-0.4718906879425049 -0.1513417661190033 0.4759140908718109
-0.5611076951026917 -0.24712981283664703 0.5129945874214172
-0.46760448813438416 -0.3851260542869568 0.5437994003295898
-0.461629182100296 -0.12369959056377411 0.5350842475891113
-0.47520652413368225 -0.25754591822624207 0.5487455129623413
-0.5354262590408325 -0.20928335189819336 0.5399456024169922
-0.4615214169025421 -0.4423007369041443 0.4755384922027588
-0.4402402639389038 -0.16159914433956146 0.4541018605232239
-0.5007725358009338 -0.14582359790802002 0.5490245819091797
-0.49582910537719727 -0.4545612335205078 0.46281057596206665
-0.5625653266906738 -0.4265821576118469 0.44150182604789734
-0.47158530354499817 -0.19363416731357574 0.49297261238098145
-0.44721484184265137 -0.43504518270492554 0.45939725637435913
-0.48351722955703735 -0.26888108253479004 0.44972512125968933
-0.4437289237976074 -0.2280714362859726 0.5151447057723999
-0.5156091451644897 -0.23487582802772522 0.4429001808166504
-0.5252927541732788 -0.2230505347251892 0.5139004588127136
-0.49501603841781616 -0.47560498118400574 0.47658464312553406
-0.4332693815231323 -0.08821144700050354 0.5437328815460205
-0.5572702884674072 -0.4667317271232605 0.46191051602363586
-0.4543806314468384 -0.40996018052101135 0.46361228823661804
-0.5307886600494385 -0.17959821224212646 0.5043208003044128
-0.44996729493141174 -0.4656180739402771 0.4402129054069519
-0.45188838243484497 -0.4512883424758911 0.5295529365539551
-0.48443809151649475 -0.40851306915283203 0.46831363439559937
-0.4662332832813263 -0.48927199840545654 0.5619724988937378
-0.559806227684021 -0.428352952003479 0.5194541811943054
-0.5504533648490906 -0.06449827551841736 0.4915831387042999
-0.5565711855888367 -0.4268919825553894 0.5062976479530334
-0.44865188002586365 -0.38683974742889404 0.48705556988716125
-0.48923259973526 -0.21551546454429626 0.5306754112243652
-0.5221216082572937 -0.3374018669128418 0.5509207248687744
-0.44383206963539124 -0.31704992055892944 0.567478358745575
-0.5422658324241638 -0.1403948813676834 0.5556774735450745
-0.48981228470802307 -0.19757038354873657 0.44136348366737366
-0.4523768126964569 -0.20138247311115265 0.5111678838729858
-0.48758095502853394 -0.42910563945770264 0.5473785996437073
-0.494598388671875 -0.23413200676441193 0.45617538690567017
-0.48126527667045593 -0.3949752151966095 0.5359410047531128
-0.5621377825737 -0.44456183910369873 0.4617041349411011
-0.5118603706359863 -0.11976885795593262 0.43418610095977783
-0.49098730087280273 -0.48304283618927 0.4843943417072296
-0.5257026553153992 -0.4272748827934265 0.4978233575820923
-0.5198231935501099 -0.38474276661872864 0.5156475305557251
-0.5329501628875732 -0.07566826045513153 0.46686938405036926
-0.43272605538368225 -0.42848002910614014 0.5611963868141174
-0.5574085712432861 -0.49548202753067017 0.44639843702316284
-0.4706195890903473 -0.39745792746543884 0.4703896641731262
-0.4751788079738617 -0.4858744740486145 0.5060288310050964
-0.5119423866271973 -0.42848604917526245 0.5560562014579773
-0.5173242092132568 -0.37191471457481384 0.5268009305000305
-0.45064783096313477 -0.39946746826171875 0.45039576292037964
-0.4365667998790741 -0.3126799464225769 0.505318820476532
-0.5043197274208069 -0.13836632668972015 0.4910352826118469
-0.4639013409614563 -0.27119573950767517 0.44400182366371155
-0.49726414680480957 -0.12633386254310608 0.504797101020813
-0.5129588842391968 -0.4875536262989044 0.5277154445648193
-0.512984573841095 -0.3579859137535095 0.48306804895401
-0.5096040368080139 -0.3525809049606323 0.47255221009254456
-0.5038403868675232 -0.47842055559158325 0.46367383003234863
-0.5068528056144714 -0.11363625526428223 0.49092766642570496
-0.4909934401512146 -0.10979785025119781 0.5417926907539368
-0.46993008255958557 -0.22910907864570618 0.5135192275047302
-0.5401983261108398 -0.43989765644073486 0.44076839089393616
-0.5532225966453552 -0.23105695843696594 0.5152158141136169
-0.5608359575271606 -0.133848637342453 0.4927319586277008
-0.4933439791202545 -0.4667142629623413 0.5488845705986023
-0.5550744533538818 -0.4068799316883087 0.49591490626335144
-0.49883729219436646 -0.26664042472839355 0.559329628944397
-0.5611473321914673 -0.20440338551998138 0.4911500811576843
-0.4564704895019531 -0.20819437503814697 0.5427062511444092
-0.449563205242157 -0.15906161069869995 0.45108118653297424
-0.4935077726840973 -0.1621541678905487 0.537561297416687
-0.44100698828697205 -0.31769946217536926 0.4344773292541504
-0.467917799949646 -0.3776492476463318 0.5215625762939453
-0.559260368347168 -0.3440451920032501 0.5185392498970032
-0.5488815307617188 -0.3606880307197571 0.45280298590660095
-0.44585391879081726 -0.1617116630077362 0.5192596316337585
-0.4958357810974121 -0.0732334703207016 0.46809467673301697
-0.4708431363105774 -0.4611778259277344 0.5169855356216431
-0.5395519137382507 -0.49461644887924194 0.5557158589363098
-0.5282362103462219 -0.06770868599414825 0.5248227119445801
-0.47550955414772034 -0.2056211233139038 0.5669146776199341
-0.5355930924415588 -0.06886638700962067 0.4765893220901489
-0.5531623959541321 -0.09732605516910553 0.44637057185173035
-0.5018481612205505 -0.1357118934392929 0.47052130103111267
-0.46886083483695984 -0.21933963894844055 0.5263422727584839
-0.5455597639083862 -0.19275963306427002 0.5463530421257019
-0.546822726726532 -0.08059826493263245 0.5614500045776367
-0.5229138135910034 -0.08291822671890259 0.5596530437469482
-0.5501608848571777 -0.17489030957221985 0.5628861784934998
-0.45493951439857483 -0.440956711769104 0.48820459842681885
-0.4899008870124817 -0.33707162737846375 0.485226571559906
-0.5528733134269714 -0.49562209844589233 0.47450003027915955
-0.5088263750076294 -0.2468033879995346 0.5619305372238159
-0.5538087487220764 -0.34763118624687195 0.5504497289657593
-0.4546591639518738 -0.449990451335907 0.5242816805839539
-0.5538183450698853 -0.08712388575077057 0.4682808518409729
-0.48422807455062866 -0.293901652097702 0.5022150874137878
-0.537039041519165 -0.3425644636154175 0.47129881381988525
-0.4829360544681549 -0.3149048089981079 0.5129444003105164
-0.4935833513736725 -0.20885473489761353 0.5646467208862305
-0.4940064251422882 -0.2608822286128998 0.5159655213356018
-0.4921328127384186 -0.31970736384391785 0.46640002727508545
-0.4936177134513855 -0.39162591099739075 0.5220816135406494
-0.44649145007133484 -0.15047834813594818 0.5391792058944702
-0.5371431112289429 -0.4840812683105469 0.46070921421051025
-0.4890657663345337 -0.4443780183792114 0.44676098227500916
-0.43147391080856323 -0.34449079632759094 0.44183433055877686
-0.49697139859199524 -0.1951720118522644 0.495254248380661
-0.5481655597686768 -0.2746424078941345 0.44257453083992004
-0.4674893617630005 -0.09001541137695312 0.43891608715057373
-0.48902446031570435 -0.13710039854049683 0.5195363163948059
-0.545778751373291 -0.4690483808517456 0.49488019943237305
-0.5593578219413757 -0.1345074623823166 0.5028024911880493
-0.523197591304779 -0.16319549083709717 0.4621615409851074
-0.4966588020324707 -0.27841830253601074 0.44727736711502075
-0.4579935669898987 -0.19465303421020508 0.46006903052330017
-0.5078330039978027 -0.3640895187854767 0.5595054030418396
-0.4759196937084198 -0.08771154284477234 0.5365275740623474
-0.4592469334602356 -0.36370599269866943 0.5475687384605408
-0.520771861076355 -0.13879016041755676 0.528865396976471
-0.4972306489944458 -0.42457807064056396 0.5141905546188354
-0.4817526936531067 -0.20034173130989075 0.44220224022865295
-0.5322467088699341 -0.254573255777359 0.5480755567550659
-0.5345456600189209 -0.1083051860332489 0.564598023891449
-0.5538797378540039 -0.18358470499515533 0.48680251836776733
-0.5472860932350159 -0.4018667936325073 0.48193809390068054
-0.5634443759918213 -0.19641932845115662 0.4943665564060211
-0.5192648768424988 -0.12108975648880005 0.5634133219718933
-0.5041341781616211 -0.36346352100372314 0.5145081281661987
-0.5112429857254028 -0.11066608130931854 0.4721103310585022
-0.5486066937446594 -0.4921582341194153 0.45620793104171753
-0.5531297326087952 -0.10234475135803223 0.5248357057571411
-0.48760882019996643 -0.08753198385238647 0.5165155529975891
-0.47076302766799927 -0.4297172725200653 0.4720005989074707
-0.48270612955093384 -0.1348901093006134 0.4712626338005066
-0.5047593712806702 -0.3759445548057556 0.4722304344177246
-0.4884379804134369 -0.09872864186763763 0.5647298097610474
-0.4896613359451294 -0.488193154335022 0.4704904854297638
-0.4775506854057312 -0.09621143341064453 0.4529431462287903
-0.4542737901210785 -0.11594387888908386 0.4453619718551636
-0.4440029263496399 -0.23959244787693024 0.5472255945205688
-0.47513094544410706 -0.20332565903663635 0.5510851144790649
-0.4631059169769287 -0.3208039402961731 0.4847783148288727
-0.4353993535041809 -0.3838340640068054 0.4840073883533478
-0.546471357345581 -0.35112351179122925 0.5119448304176331
-0.5397522449493408 -0.31336843967437744 0.5152480602264404
-0.5139632821083069 -0.17004230618476868 0.5026772618293762
-0.522075891494751 -0.1832701861858368 0.5078766345977783
-0.5050343871116638 -0.42859625816345215 0.5661779046058655
-0.5424333810806274 -0.3313193619251251 0.5121299028396606
-0.4401690363883972 -0.3675217628479004 0.448703408241272
-0.47068092226982117 -0.08483225107192993 0.49413666129112244
-0.4314524233341217 -0.35859471559524536 0.5518609285354614
-0.5656624436378479 -0.2029443383216858 0.5524815917015076
-0.5281579494476318 -0.12975256145000458 0.5139998197555542
-0.5227358341217041 -0.47998249530792236 0.5223740339279175
-0.5153050422668457 -0.2620847821235657 0.46001964807510376
-0.5632510185241699 -0.4565585255622864 0.5195843577384949
-0.5486944317817688 -0.36921560764312744 0.5129873156547546
-0.5290875434875488 -0.29296186566352844 0.4888223111629486
-0.4611777663230896 -0.3231395483016968 0.47138985991477966
-0.43307340145111084 -0.4235026240348816 0.5195056200027466
-0.48186051845550537 -0.3465627431869507 0.5334206223487854
-0.4643460214138031 -0.2913879454135895 0.4767778515815735
-0.5506053566932678 -0.12010788917541504 0.5657674670219421
-0.5280871391296387 -0.35939499735832214 0.5202399492263794
-0.4609702527523041 -0.1307971030473709 0.53668212890625
-0.47422361373901367 -0.2280033379793167 0.4352129101753235
-0.49990153312683105 -0.19033664464950562 0.47403913736343384
-0.5326057076454163 -0.31905314326286316 0.5065702199935913
-0.5643726587295532 -0.17161016166210175 0.5287063121795654
-0.5355846285820007 -0.39052000641822815 0.45676854252815247
-0.5103949904441833 -0.08095893263816833 0.48587673902511597
-0.44115379452705383 -0.4198283553123474 0.4655073881149292
-0.49758681654930115 -0.43296191096305847 0.4485306441783905
-0.4756251275539398 -0.34969496726989746 0.5273752808570862
-0.5352532267570496 -0.368228018283844 0.5535113215446472
-0.4877936542034149 -0.4453474283218384 0.4899216890335083
-0.5523799657821655 -0.46988534927368164 0.5092472434043884
-0.5508087277412415 -0.40541476011276245 0.4430468678474426
-0.5508713126182556 -0.3035462200641632 0.45557981729507446
-0.5235164165496826 -0.30931898951530457 0.45941194891929626
-0.5476918816566467 -0.43438541889190674 0.5600338578224182
-0.5188956260681152 -0.3004192113876343 0.5346712470054626
-0.45984601974487305 -0.1959158182144165 0.5533910393714905
-0.49412259459495544 -0.426468163728714 0.5157201290130615
-0.5049296617507935 -0.13764852285385132 0.46599021553993225
-0.47466856241226196 -0.49432939291000366 0.4848581552505493
-0.5192468762397766 -0.4576440453529358 0.5438193082809448
-0.4545002579689026 -0.38973867893218994 0.5290993452072144
-0.4443705081939697 -0.24624456465244293 0.4829326272010803
-0.47396957874298096 -0.32659071683883667 0.5102288126945496
-0.4767857789993286 -0.3712402284145355 0.5224643349647522
-0.49746230244636536 -0.24057644605636597 0.47219064831733704
-0.4654158353805542 -0.4337289035320282 0.4980197846889496
-0.4942490756511688 -0.4951484799385071 0.5406404137611389
-0.49118372797966003 -0.4643833339214325 0.5475898385047913
-0.47020992636680603 -0.10060004889965057 0.5251076221466064
-0.4980509877204895 -0.1547086238861084 0.4815466105937958
-0.5071936249732971 -0.34372442960739136 0.4771811366081238
-0.4388098120689392 -0.2783014178276062 0.5016161203384399
-0.5148782730102539 -0.3560948967933655 0.46437153220176697
-0.43803349137306213 -0.1798861026763916 0.49805012345314026
-0.48538702726364136 -0.13371838629245758 0.4830920994281769
-0.5278641581535339 -0.2910056710243225 0.4952470660209656
-0.4539586305618286 -0.10941329598426819 0.5489547252655029
-0.47235286235809326 -0.26894843578338623 0.45679253339767456
-0.4404357969760895 -0.1269473433494568 0.5041234493255615
-0.4642920196056366 -0.10738761723041534 0.47427985072135925
-0.48858442902565 -0.08131036162376404 0.4633568227291107
-0.54563969373703 -0.0855686217546463 0.5512313842773438
-0.5599724650382996 -0.24626865983009338 0.5202069878578186
-0.4693152904510498 -0.23049785196781158 0.5090240240097046
-0.48404303193092346 -0.22902032732963562 0.445699542760849
-0.5424282550811768 -0.3741808235645294 0.5582348704338074
-0.5029625296592712 -0.23163338005542755 0.5636900067329407
-0.5523315668106079 -0.4149315655231476 0.4711644947528839
-0.4420793056488037 -0.18621161580085754 0.45085203647613525
-0.5563003420829773 -0.4247433543205261 0.5565759539604187
-0.5091507434844971 -0.12017978727817535 0.5472865104675293
-0.435699999332428 -0.2627047598361969 0.470086932182312
-0.4965783655643463 -0.10994525253772736 0.5609371066093445
-0.512297511100769 -0.2867012917995453 0.540722131729126
-0.5123960375785828 -0.39440247416496277 0.4708936810493469
-0.5011981725692749 -0.39497384428977966 0.5362446308135986
-0.4760017991065979 -0.09279370307922363 0.5338442921638489
-0.5048084855079651 -0.41922158002853394 0.46495944261550903
-0.44642049074172974 -0.22208625078201294 0.4476642608642578
-0.4985434412956238 -0.16522857546806335 0.5416525602340698
-0.4528123736381531 -0.10221260786056519 0.4982239305973053
-0.47599610686302185 -0.4667903184890747 0.5223690271377563
-0.49655067920684814 -0.40595152974128723 0.467328816652298
-0.47054317593574524 -0.4003961682319641 0.47942054271698
-0.5150916576385498 -0.1675310730934143 0.4592147469520569
-0.5551893711090088 -0.4188939332962036 0.5292280316352844
-0.5590596795082092 -0.25744861364364624 0.5011686682701111
-0.5154657363891602 -0.3475499749183655 0.5058144330978394
-0.5576639175415039 -0.3581937849521637 0.48935601115226746
-0.5467912554740906 -0.27038323879241943 0.47494083642959595
-0.5570234060287476 -0.4429646134376526 0.47742241621017456
-0.4767264723777771 -0.1504262238740921 0.4987506568431854
-0.5595663785934448 -0.23453648388385773 0.555192232131958
-0.5589180588722229 -0.3473837673664093 0.4355401396751404
-0.48811089992523193 -0.4533251225948334 0.559988796710968
-0.510993480682373 -0.22828209400177002 0.47753697633743286
-0.5206170678138733 -0.4936913251876831 0.549984335899353
-0.5295327305793762 -0.3906208872795105 0.48174387216567993
-0.541061520576477 -0.3627808392047882 0.4711284637451172
-0.434556782245636 -0.1173347532749176 0.4713016748428345
-0.45284128189086914 -0.48211807012557983 0.5098455548286438
-0.449565589427948 -0.4043150246143341 0.45494532585144043
-0.45891040563583374 -0.2143796980381012 0.5644612312316895
-0.5444732308387756 -0.43411099910736084 0.44072890281677246
-0.5221846103668213 -0.4779413342475891 0.5159536600112915
-0.5542933344841003 -0.30101630091667175 0.5026358366012573
-0.5542280673980713 -0.1975822150707245 0.5666705369949341
-0.5134316682815552 -0.2737847864627838 0.48380693793296814
-0.4339044988155365 -0.1285589188337326 0.563727855682373
-0.513818085193634 -0.3610374927520752 0.4354434609413147
-0.5555059313774109 -0.08249559998512268 0.5119661688804626
-0.5057816505432129 -0.43001875281333923 0.5595969557762146
-0.5605574250221252 -0.21643327176570892 0.5139327049255371
-0.4673815071582794 -0.175030916929245 0.5241066813468933
-0.49132078886032104 -0.309975266456604 0.5412580966949463
-0.5479758381843567 -0.375766783952713 0.5385566353797913
-0.4461219608783722 -0.210532546043396 0.4399853050708771
-0.4540145993232727 -0.07721631228923798 0.49526944756507874
-0.5132853388786316 -0.345379114151001 0.5149574279785156
-0.5430002212524414 -0.4401234984397888 0.566709578037262
-0.49838101863861084 -0.27467191219329834 0.47385966777801514
-0.5598412156105042 -0.47063106298446655 0.4412091374397278
-0.4711703360080719 -0.15935879945755005 0.5613752603530884
-0.4337911009788513 -0.4329105615615845 0.43530410528182983
-0.47368842363357544 -0.3715893626213074 0.5575144290924072
-0.5001835227012634 -0.30798467993736267 0.4899102747440338
-0.5245158672332764 -0.2532549500465393 0.45816001296043396
-0.4342595338821411 -0.1476781964302063 0.5481940507888794
-0.4384704828262329 -0.20157158374786377 0.5547248721122742
-0.4664037823677063 -0.2923309803009033 0.43609336018562317
-0.49645674228668213 -0.26391345262527466 0.5324406027793884
-0.448844850063324 -0.22508984804153442 0.44500935077667236
-0.553519606590271 -0.11962153017520905 0.5519092679023743
-0.511910080909729 -0.4689975082874298 0.4477294683456421
-0.5504583120346069 -0.10104525089263916 0.4879966080188751
-0.5034040212631226 -0.14224973320960999 0.4660494923591614
-0.49412500858306885 -0.24703559279441833 0.4891672134399414
-0.5496247410774231 -0.31425970792770386 0.44835907220840454
-0.5231104493141174 -0.32447245717048645 0.45890387892723083
-0.4315382242202759 -0.1984603852033615 0.5587077140808105
-0.4403380751609802 -0.37383413314819336 0.45279738306999207
-0.43229788541793823 -0.2766658067703247 0.5244385004043579
-0.44916749000549316 -0.35078027844429016 0.5130290389060974
-0.5255843997001648 -0.40498828887939453 0.43790626525878906
-0.5341148376464844 -0.3901955783367157 0.5338990688323975
-0.49633169174194336 -0.16222411394119263 0.4718175232410431
-0.5371789932250977 -0.24716365337371826 0.46978482604026794
-0.4643405079841614 -0.3324795365333557 0.4710737466812134
-0.46439215540885925 -0.4165494441986084 0.5308884382247925
-0.5133606195449829 -0.4616738557815552 0.5178071856498718
-0.48380962014198303 -0.45521339774131775 0.49522751569747925
-0.5035361051559448 -0.18714366853237152 0.45975300669670105
-0.49047812819480896 -0.06682193279266357 0.4353817105293274
-0.4693465232849121 -0.3465322256088257 0.4986174702644348
-0.527862548828125 -0.29847171902656555 0.5000139474868774
-0.44196006655693054 -0.11864215135574341 0.5585681796073914
-0.43551936745643616 -0.32697591185569763 0.53842693567276
-0.44599488377571106 -0.4477824568748474 0.5310680866241455
-0.4881473779678345 -0.41221439838409424 0.5183197259902954
-0.4731931984424591 -0.21419505774974823 0.4340897798538208
-0.44130682945251465 -0.3457986116409302 0.5412852168083191
-0.5450792908668518 -0.23664657771587372 0.4410814046859741
-0.49086132645606995 -0.21692681312561035 0.4854375123977661
-0.4691314697265625 -0.2922348380088806 0.44086846709251404
-0.5606048703193665 -0.4766221344470978 0.4789835810661316
-0.4407958984375 -0.35560131072998047 0.5430387258529663
-0.47906744480133057 -0.19279742240905762 0.5215874314308167
-0.5386783480644226 -0.11918172240257263 0.4895898699760437
-0.4399603307247162 -0.4919063448905945 0.44877320528030396
-0.5477803349494934 -0.18211747705936432 0.44768476486206055
-0.507728099822998 -0.2752035856246948 0.5024867653846741
-0.5261653661727905 -0.11491324007511139 0.49420639872550964
-0.5422303080558777 -0.2559828758239746 0.4484408497810364
-0.4757031500339508 -0.42326509952545166 0.5531840920448303
-0.5552982687950134 -0.3638632595539093 0.46233436465263367
-0.4891384541988373 -0.3223256468772888 0.49418172240257263
-0.5055437088012695 -0.23238739371299744 0.46855002641677856
-0.5224984288215637 -0.3862798810005188 0.4527848958969116
-0.48178914189338684 -0.09220398962497711 0.5556086897850037
-0.43589577078819275 -0.45080170035362244 0.5297670960426331
-0.5558085441589355 -0.14387930929660797 0.5469450354576111
-0.5013102889060974 -0.0691317766904831 0.4956900179386139
-0.49297571182250977 -0.3515268564224243 0.5435118675231934
-0.4899302124977112 -0.2808387875556946 0.4904803931713104
-0.4644046425819397 -0.4673072099685669 0.5184370875358582
-0.5560266971588135 -0.4042103886604309 0.43772923946380615
-0.4958972930908203 -0.08805614709854126 0.46195822954177856
-0.5506515502929688 -0.26954373717308044 0.43607988953590393
-0.5186325907707214 -0.304900586605072 0.4437106251716614
-0.44640666246414185 -0.33160945773124695 0.5123481750488281
-0.5506901741027832 -0.07726573944091797 0.45775100588798523
-0.5030685067176819 -0.46030065417289734 0.45443394780158997
-0.547572672367096 -0.33089399337768555 0.4450973868370056
-0.5029892921447754 -0.25271329283714294 0.45896056294441223
-0.4624743163585663 -0.4655980169773102 0.5106894373893738
-0.4567716121673584 -0.23144109547138214 0.4338690936565399
-0.5557642579078674 -0.4786972999572754 0.45066037774086
-0.4949866533279419 -0.08121494948863983 0.48293614387512207
-0.45966073870658875 -0.38109689950942993 0.5642603039741516
-0.5143128037452698 -0.41378694772720337 0.4590376019477844
-0.5504719614982605 -0.4632765054702759 0.5580635070800781
-0.46845653653144836 -0.43536391854286194 0.5143558979034424
-0.5033718943595886 -0.4673295021057129 0.5662945508956909
-0.5339859127998352 -0.24918881058692932 0.4818040728569031
-0.5001921057701111 -0.0674828588962555 0.5363380312919617
-0.5337544679641724 -0.19236251711845398 0.4958309829235077
-0.5337604284286499 -0.25571948289871216 0.4647468626499176
-0.4565197229385376 -0.37057432532310486 0.4465470314025879
-0.4496496319770813 -0.42501193284988403 0.5286617279052734
-0.4488684833049774 -0.18228736519813538 0.5611819624900818
-0.5294181108474731 -0.33638790249824524 0.5188403129577637
-0.5500337481498718 -0.06859658658504486 0.522153913974762
-0.47431480884552 -0.24466553330421448 0.5012649893760681
-0.5396690964698792 -0.45278462767601013 0.46753665804862976
-0.5620504021644592 -0.2273411750793457 0.4576028287410736
-0.4418107271194458 -0.4510824978351593 0.47637417912483215
-0.45015257596969604 -0.2282337099313736 0.4890284836292267
-0.46734124422073364 -0.324268639087677 0.4543553590774536
-0.43391910195350647 -0.1190439760684967 0.5326483845710754
-0.5280500650405884 -0.2780302166938782 0.44509604573249817
-0.5607178211212158 -0.08697548508644104 0.48955753445625305
-0.5364315509796143 -0.15538185834884644 0.5041026473045349
-0.47676461935043335 -0.4515969753265381 0.49327489733695984
-0.5108886957168579 -0.37063026428222656 0.4572775065898895
-0.44820311665534973 -0.17560149729251862 0.5091743469238281
-0.5290907621383667 -0.22267355024814606 0.4886016845703125
-0.5655800104141235 -0.22777967154979706 0.5229461193084717
-0.4362529516220093 -0.1391899287700653 0.4438785910606384
-0.5232146978378296 -0.4796687960624695 0.4424462914466858
-0.5032209753990173 -0.40779101848602295 0.4414518475532532
-0.48138710856437683 -0.09764564037322998 0.5444071292877197
-0.5586459636688232 -0.36915135383605957 0.43836289644241333
-0.509218156337738 -0.09148263931274414 0.4592210352420807
-0.46746179461479187 -0.28299182653427124 0.5032534599304199
-0.45366349816322327 -0.36333411931991577 0.4770428240299225
-0.46647486090660095 -0.43759989738464355 0.4476916193962097
-0.5106204152107239 -0.3272806704044342 0.47398972511291504
-0.5316746234893799 -0.11553561687469482 0.48844781517982483
-0.5242509841918945 -0.15621668100357056 0.5471952557563782
-0.47145506739616394 -0.07904528081417084 0.44981619715690613
-0.5055587887763977 -0.1457071155309677 0.5644664764404297
-0.5391755104064941 -0.1750289499759674 0.461736798286438
-0.5123109221458435 -0.17182818055152893 0.5369887351989746
-0.5581333637237549 -0.38753408193588257 0.5629700422286987
-0.4892589747905731 -0.24700596928596497 0.46768006682395935
-0.5051532983779907 -0.3806948661804199 0.4517936110496521
-0.5274942517280579 -0.25606605410575867 0.5037786960601807
-0.4952221214771271 -0.3489985466003418 0.49199312925338745
-0.4481922686100006 -0.09831365942955017 0.5541311502456665
-0.5342003107070923 -0.22245250642299652 0.536664605140686
-0.5217363834381104 -0.2910698354244232 0.5485860109329224
-0.47115007042884827 -0.18264608085155487 0.4440155625343323
-0.5587466359138489 -0.1986479014158249 0.5104002356529236
-0.5428271889686584 -0.4968006908893585 0.46496713161468506
-0.48196810483932495 -0.34098759293556213 0.5208656191825867
-0.5452326536178589 -0.21648401021957397 0.4483115077018738
-0.44522637128829956 -0.38721269369125366 0.43388283252716064
-0.4579871892929077 -0.35907721519470215 0.48837289214134216
-0.5464170575141907 -0.4102208614349365 0.48699626326560974
-0.5266278386116028 -0.2787630259990692 0.4692474603652954
-0.5069892406463623 -0.4860430061817169 0.5010566115379333
-0.4849261939525604 -0.10770000517368317 0.5296421647071838
-0.555256724357605 -0.33997464179992676 0.5355187058448792
-0.4691334068775177 -0.47542786598205566 0.437069833278656
-0.49908119440078735 -0.3039374053478241 0.4517550766468048
-0.5301922559738159 -0.34658023715019226 0.5392842292785645
-0.5309298038482666 -0.14806310832500458 0.5464197397232056
-0.53261399269104 -0.1275487244129181 0.44414594769477844
-0.5143483877182007 -0.45541536808013916 0.4767921566963196
-0.5277232527732849 -0.1673799455165863 0.5453540086746216
-0.5208861827850342 -0.3510914444923401 0.5631869435310364
-0.5439847111701965 -0.2927979826927185 0.5129873156547546
-0.4772576689720154 -0.43189123272895813 0.4759756326675415
-0.5458869338035583 -0.1692729890346527 0.5312527418136597
-0.4551774561405182 -0.31183236837387085 0.4358157217502594
-0.4447094202041626 -0.4527662992477417 0.4634574055671692
-0.5617128014564514 -0.3266124725341797 0.526774525642395
-0.4407612681388855 -0.26011985540390015 0.44503259658813477
-0.44678279757499695 -0.45584553480148315 0.46073487401008606
-0.5362131595611572 -0.11307792365550995 0.48844048380851746
-0.45226946473121643 -0.2564220428466797 0.49762600660324097
-0.4598689377307892 -0.40690749883651733 0.46985095739364624
-0.4431139826774597 -0.23590929806232452 0.48454809188842773
-0.4811205565929413 -0.17260995507240295 0.5291640758514404
-0.4977441430091858 -0.22712397575378418 0.4651508629322052
-0.5009393095970154 -0.11449909210205078 0.5563962459564209
-0.5629207491874695 -0.38799145817756653 0.46849867701530457
-0.5217702388763428 -0.3665580749511719 0.4711439311504364
-0.5021207332611084 -0.3938434422016144 0.5316101908683777
-0.5619789361953735 -0.07964688539505005 0.4586513936519623
-0.4454066753387451 -0.20304468274116516 0.5523243546485901
-0.507285475730896 -0.3577485680580139 0.5154842734336853
-0.5395278930664062 -0.3154975175857544 0.5062274932861328
-0.5492289066314697 -0.1499287635087967 0.49499914050102234
-0.4942132234573364 -0.20323416590690613 0.5542479157447815
-0.5473484992980957 -0.4152563810348511 0.4499346613883972
-0.43617966771125793 -0.3110109567642212 0.5299856066703796
-0.54344642162323 -0.09482318162918091 0.4501754641532898
-0.4749118685722351 -0.4871176481246948 0.5496650338172913
-0.5135700106620789 -0.225401371717453 0.5139853954315186
-0.5385789275169373 -0.3009040355682373 0.4335998296737671
-0.4603673219680786 -0.30054065585136414 0.47065311670303345
-0.5128406882286072 -0.3211597800254822 0.4547487497329712
-0.5165202617645264 -0.20427319407463074 0.5086095333099365
-0.4322463274002075 -0.17284464836120605 0.5448330640792847
-0.546047568321228 -0.27222901582717896 0.4661826491355896
-0.5336873531341553 -0.35543084144592285 0.5099390745162964
-0.5100260376930237 -0.32540613412857056 0.48247817158699036
-0.43300917744636536 -0.3148628771305084 0.5569678544998169
-0.4321327805519104 -0.22837379574775696 0.5648290514945984
-0.4312137961387634 -0.1440030038356781 0.5295599699020386
-0.5360808372497559 -0.4187789559364319 0.44041433930397034
-0.536627471446991 -0.2688382565975189 0.4921499192714691
-0.4642070531845093 -0.3677070736885071 0.5168417692184448
-0.5172505378723145 -0.4024782180786133 0.5377674102783203
-0.5264425277709961 -0.27288010716438293 0.4670904278755188
-0.4785366654396057 -0.4228881597518921 0.44171908497810364
-0.4814378023147583 -0.2835461497306824 0.5209395289421082
-0.5553436279296875 -0.16034382581710815 0.4397760331630707
-0.4370615780353546 -0.08992116153240204 0.5411287546157837
-0.5237274765968323 -0.21770614385604858 0.5668437480926514
-0.4692898392677307 -0.21123531460762024 0.43733447790145874
-0.5609633326530457 -0.22515833377838135 0.49592310190200806
-0.4998118579387665 -0.4152882993221283 0.4743551015853882
-0.4460177719593048 -0.3398750424385071 0.5640196800231934
-0.5433939099311829 -0.2672680914402008 0.5192288160324097
-0.4734588861465454 -0.14816345274448395 0.5351172089576721
-0.455702543258667 -0.47299206256866455 0.4441600441932678
-0.5479318499565125 -0.4125359356403351 0.5299890637397766
-0.4934195876121521 -0.19103795289993286 0.5139622688293457
-0.49048200249671936 -0.4178955554962158 0.5491184592247009
-0.46177732944488525 -0.16967862844467163 0.5587534308433533
-0.5126004219055176 -0.3150957226753235 0.4967135787010193
-0.5187601447105408 -0.2762198746204376 0.5176053643226624
-0.4867478013038635 -0.42192593216896057 0.5309355854988098
-0.5563496351242065 -0.4085276424884796 0.4866923689842224
-0.45451077818870544 -0.3890148401260376 0.544707179069519
-0.4876672923564911 -0.1944389045238495 0.47317928075790405
-0.4350815713405609 -0.21539799869060516 0.4441065788269043
-0.4572637975215912 -0.2953392565250397 0.5456929206848145
-0.47150734066963196 -0.07818791270256042 0.5557119846343994
-0.47610053420066833 -0.16557884216308594 0.44135743379592896
-0.458807110786438 -0.17870792746543884 0.5603066086769104
-0.4641682803630829 -0.23020407557487488 0.538101851940155
-0.48473212122917175 -0.28863129019737244 0.5652235150337219
-0.4992969036102295 -0.4547536373138428 0.4394140839576721
-0.5161766409873962 -0.30012065172195435 0.5081874132156372
-0.55647873878479 -0.2591676115989685 0.5623584389686584
-0.4646238386631012 -0.1925751119852066 0.5026564002037048
-0.44675859808921814 -0.45915085077285767 0.5379725694656372
-0.4697989523410797 -0.33406350016593933 0.4993317723274231
-0.5453879833221436 -0.4959980249404907 0.4784875214099884
-0.5203258991241455 -0.27216988801956177 0.4798491597175598
-0.44608715176582336 -0.4359036386013031 0.5442290902137756
-0.492552787065506 -0.4024263620376587 0.5512492656707764
-0.4913734495639801 -0.45666104555130005 0.5499833822250366
-0.5291640758514404 -0.24994422495365143 0.5246999263763428
-0.46566110849380493 -0.186838760972023 0.5452615022659302
-0.4620899558067322 -0.41659483313560486 0.5082970261573792
-0.49936574697494507 -0.4407225251197815 0.4916251301765442
-0.4612565338611603 -0.3052351176738739 0.4860770106315613
-0.5017105937004089 -0.2528345286846161 0.5362827181816101
-0.4509449601173401 -0.37291470170021057 0.46877798438072205
-0.5232985019683838 -0.122195303440094 0.5545513033866882
-0.5198220014572144 -0.1359788477420807 0.5065768957138062
-0.43685317039489746 -0.25062477588653564 0.5550341606140137
-0.4911823272705078 -0.34675905108451843 0.5476328134536743
-0.5204257369041443 -0.15549606084823608 0.5047369003295898
-0.522278368473053 -0.29145002365112305 0.5552968978881836
-0.5258079171180725 -0.46114295721054077 0.5549967885017395
-0.5499653220176697 -0.39820656180381775 0.4978715181350708
-0.4608313739299774 -0.07326142489910126 0.4584308862686157
-0.5345490574836731 -0.06516580283641815 0.5090622901916504
-0.4498071074485779 -0.3396283984184265 0.47232484817504883
-0.44801604747772217 -0.4087620675563812 0.4690098166465759
-0.5162396430969238 -0.35289114713668823 0.4556922912597656
-0.526838481426239 -0.4232809841632843 0.5050033330917358
-0.4723176956176758 -0.274259477853775 0.4427867531776428
-0.4863557517528534 -0.18843720853328705 0.4570828080177307
-0.5006150603294373 -0.07621464133262634 0.5446557998657227
-0.5044599771499634 -0.38595709204673767 0.45485302805900574
-0.5596846342086792 -0.396700918674469 0.4990391731262207
-0.4987202286720276 -0.4235779643058777 0.49446436762809753
-0.5064569115638733 -0.14639906585216522 0.5573446750640869
-0.43693646788597107 -0.2867394983768463 0.5478753447532654
-0.4823325574398041 -0.4544464945793152 0.443082720041275
-0.48436814546585083 -0.202036514878273 0.5210278630256653
-0.5006864666938782 -0.24076521396636963 0.522570013999939
-0.4711112976074219 -0.43606051802635193 0.49737921357154846
-0.5212649703025818 -0.28826606273651123 0.4862515926361084
-0.5560421347618103 -0.15490488708019257 0.503564715385437
-0.4480631947517395 -0.47992074489593506 0.4462541341781616
-0.5488753318786621 -0.1199931800365448 0.5015228390693665
-0.4647741913795471 -0.4651147723197937 0.5337574481964111
-0.5554171800613403 -0.10250574350357056 0.5022432208061218
-0.43665367364883423 -0.22230854630470276 0.5142933130264282
-0.5434035658836365 -0.22361359000205994 0.534803569316864
-0.48365575075149536 -0.1987220048904419 0.5523424744606018
-0.4720289409160614 -0.21901576220989227 0.5043145418167114
-0.5045298337936401 -0.18849822878837585 0.5447863340377808
-0.46775275468826294 -0.45512667298316956 0.4677869975566864
-0.4831942915916443 -0.2517944574356079 0.5568429231643677
-0.43342718482017517 -0.10882791876792908 0.5148577690124512
-0.4689699411392212 -0.12933757901191711 0.45297202467918396
-0.5237328410148621 -0.4878227114677429 0.5173054933547974
-0.4420487880706787 -0.4966388940811157 0.4502757489681244
-0.5389089584350586 -0.1595601737499237 0.48309069871902466
-0.5391860604286194 -0.33664464950561523 0.467786580324173
-0.5321264266967773 -0.25244444608688354 0.5235546827316284
-0.5322749018669128 -0.2593803405761719 0.43728113174438477
-0.4348999261856079 -0.4541018605232239 0.5085404515266418
-0.4315829277038574 -0.3586381673812866 0.47193801403045654
-0.466421902179718 -0.2960183322429657 0.4691697955131531
-0.4887080192565918 -0.13874514400959015 0.5233879089355469
-0.5335235595703125 -0.20806416869163513 0.5584999322891235
-0.5393082499504089 -0.21504399180412292 0.5005499124526978
-0.4765220582485199 -0.4387730360031128 0.4646282196044922
-0.5190421342849731 -0.13329577445983887 0.4850289225578308
-0.5204150080680847 -0.17594119906425476 0.45195263624191284
-0.5227633714675903 -0.25898298621177673 0.47991645336151123
-0.48533231019973755 -0.23692035675048828 0.452299028635025
-0.5478885769844055 -0.15737584233283997 0.4894777834415436
-0.5457715392112732 -0.46545901894569397 0.4896860420703888
-0.452443927526474 -0.40944212675094604 0.5672730207443237
-0.5630466938018799 -0.2403879463672638 0.5274232625961304
-0.49417445063591003 -0.3859175443649292 0.47588685154914856
-0.49126580357551575 -0.10903456807136536 0.48979684710502625
-0.5194175839424133 -0.32445913553237915 0.5678527355194092
-0.5299689769744873 -0.42412468791007996 0.5535150170326233
-0.5489600896835327 -0.13336801528930664 0.5174749493598938
-0.43684542179107666 -0.3604091703891754 0.5485042333602905
-0.5540745258331299 -0.15821783244609833 0.4773311913013458
-0.5038297772407532 -0.15181219577789307 0.5187742710113525
-0.5041439533233643 -0.37136587500572205 0.5350052118301392
-0.5031229853630066 -0.3922361135482788 0.48607543110847473
-0.45866310596466064 -0.4731988310813904 0.47666671872138977
-0.4678972661495209 -0.23206458985805511 0.4924546182155609
-0.5448864698410034 -0.4779990315437317 0.4872834384441376
-0.4731619954109192 -0.3821318447589874 0.5547529458999634
-0.4824265241622925 -0.3005809485912323 0.5349087119102478
-0.5254989266395569 -0.10963696241378784 0.4827606976032257
-0.5651477575302124 -0.07282297313213348 0.5000788569450378
-0.4441675841808319 -0.4512597322463989 0.46019184589385986
-0.5007133483886719 -0.10900430381298065 0.44566377997398376
-0.4933373034000397 -0.16876350343227386 0.48584771156311035
-0.5058843493461609 -0.0923227071762085 0.5055939555168152
-0.5555806159973145 -0.15927183628082275 -0.3680032193660736
-0.4684259295463562 -0.0730661004781723 -0.35452425479888916
-0.49836981296539307 -0.4673549234867096 -0.3908936679363251
-0.49853652715682983 -0.20309430360794067 -0.3188031315803528
-0.5145547389984131 -0.4700162410736084 -0.38823971152305603
-0.4433594346046448 -0.40584248304367065 -0.3661562204360962
-0.4404488205909729 -0.4878767132759094 -0.34616735577583313
-0.4379003345966339 -0.39847949147224426 -0.35317832231521606
-0.4434220790863037 -0.44075459241867065 -0.3565555512905121
-0.4647971987724304 -0.20754089951515198 -0.3640514314174652
-0.5382696390151978 -0.285118967294693 -0.3768949508666992
-0.5015641450881958 -0.3394681513309479 -0.31420013308525085
-0.4623410701751709 -0.36205458641052246 -0.3499279320240021
-0.5286809206008911 -0.301624059677124 -0.37950846552848816
-0.4773232042789459 -0.33752673864364624 -0.3652176856994629
-0.46898362040519714 -0.3189683258533478 -0.3049743175506592
-0.5415552854537964 -0.1761585921049118 -0.3701627254486084
-0.5084254145622253 -0.22261428833007812 -0.3566237688064575
-0.5099833011627197 -0.49809250235557556 -0.41461992263793945
-0.4703208804130554 -0.2705041766166687 -0.33329105377197266
-0.4371813237667084 -0.20149099826812744 -0.4198901653289795
-0.5242631435394287 -0.24080032110214233 -0.39538076519966125
-0.43590158224105835 -0.08740304410457611 -0.31278836727142334
-0.5022479295730591 -0.13248015940189362 -0.40938809514045715
-0.5242791771888733 -0.29720500111579895 -0.3271382749080658
-0.5004296898841858 -0.43914133310317993 -0.38078004121780396
-0.5221657752990723 -0.36796310544013977 -0.4047565758228302
-0.5099811553955078 -0.30367931723594666 -0.32268691062927246
-0.4586048126220703 -0.2713552415370941 -0.36501064896583557
-0.4610527753829956 -0.11254143714904785 -0.33615174889564514
-0.45805424451828003 -0.08998693525791168 -0.42156994342803955
-0.4479278028011322 -0.3783458173274994 -0.3629724681377411
-0.4585549533367157 -0.1865503489971161 -0.40722835063934326
-0.4771415591239929 -0.4685731530189514 -0.3789573609828949
-0.45639094710350037 -0.3125648498535156 -0.3462609052658081
-0.4677934944629669 -0.14129310846328735 -0.3246242105960846
-0.5648952722549438 -0.31580641865730286 -0.3646731674671173
-0.5583829879760742 -0.26306331157684326 -0.3451947867870331
-0.4542868733406067 -0.08881272375583649 -0.409787118434906
-0.5348244905471802 -0.2118300050497055 -0.40920448303222656
-0.5356799364089966 -0.24851781129837036 -0.40421488881111145
